ply
format ascii 1.0
element vertex 1217
property float x
property float y
property float z
property uchar red
property uchar green
property uchar blue
end_header
0.217780 -0.425839 1.239000 175 174 176
0.221004 -0.425839 1.239000 175 174 176
0.223866 -0.425152 1.237000 175 174 174
0.227085 -0.425152 1.237000 176 175 175
0.230676 -0.425839 1.239000 176 175 175
0.234467 -0.426870 1.242000 177 176 176
0.237699 -0.426870 1.242000 177 176 176
0.240931 -0.426870 1.242000 179 178 178
0.244163 -0.426870 1.242000 179 178 178
0.247793 -0.427558 1.244000 180 179 179
0.251030 -0.427558 1.244000 179 178 178
0.254267 -0.427558 1.244000 180 179 179
0.257504 -0.427558 1.244000 180 179 179
0.260741 -0.427558 1.244000 180 179 179
0.264615 -0.428589 1.247000 180 179 179
0.267860 -0.428589 1.247000 179 178 178
0.271105 -0.428589 1.247000 180 179 179
0.274349 -0.428589 1.247000 180 179 179
0.277594 -0.428589 1.247000 181 180 180
0.281290 -0.429276 1.249000 181 180 180
0.284540 -0.429276 1.249000 182 181 181
0.287790 -0.429276 1.249000 180 180 176
0.291040 -0.429276 1.249000 180 179 179
0.294997 -0.430307 1.252000 182 181 181
0.297540 -0.429276 1.249000 182 181 181
0.300790 -0.429276 1.249000 183 182 182
0.304771 -0.430307 1.252000 182 181 181
0.307290 -0.429276 1.249000 182 181 181
0.311286 -0.430307 1.252000 182 181 181
0.314544 -0.430307 1.252000 182 181 181
0.317802 -0.430307 1.252000 182 181 181
0.321060 -0.430307 1.252000 183 182 182
0.324318 -0.430307 1.252000 183 182 182
0.327576 -0.430307 1.252000 183 182 182
0.330834 -0.430307 1.252000 183 182 182
0.334092 -0.430307 1.252000 183 182 182
0.337350 -0.430307 1.252000 183 182 182
0.340607 -0.430307 1.252000 183 182 182
0.343865 -0.430307 1.252000 181 181 177
0.347123 -0.430307 1.252000 180 180 176
0.350381 -0.430307 1.252000 181 181 177
0.353639 -0.430307 1.252000 184 181 176
0.356897 -0.430307 1.252000 184 181 176
0.360155 -0.430307 1.252000 188 185 180
0.362542 -0.429276 1.249000 188 185 182
0.365792 -0.429276 1.249000 186 183 180
0.369042 -0.429276 1.249000 185 182 179
0.373186 -0.430307 1.252000 184 181 178
0.376444 -0.430307 1.252000 182 179 176
0.379702 -0.430307 1.252000 175 171 174
0.383572 -0.430995 1.254000 165 161 164
0.387760 -0.432026 1.257000 155 151 152
0.391653 -0.432713 1.259000 117 114 111
0.395871 -0.433744 1.262000 112 112 106
0.400736 -0.435463 1.267000 115 115 109
0.404033 -0.435463 1.267000 117 117 111
0.407330 -0.435463 1.267000 119 117 109
0.411599 -0.436494 1.270000 120 118 110
0.415884 -0.437525 1.273000 121 119 111
0.419196 -0.437525 1.273000 119 120 111
0.422509 -0.437525 1.273000 119 120 111
0.426490 -0.438212 1.275000 117 118 109
0.429808 -0.438212 1.275000 118 119 110
0.434145 -0.439243 1.278000 120 121 112
0.437471 -0.439243 1.278000 120 121 112
0.440796 -0.439243 1.278000 120 121 112
0.443079 -0.438212 1.275000 125 126 115
0.447447 -0.439243 1.278000 123 124 113
1.037888 -1.003936 2.921000 123 124 113
1.045489 -1.003936 2.921000 122 123 112
1.053090 -1.003936 2.921000 68 68 62
1.060691 -1.003936 2.921000 64 64 64
1.068292 -1.003936 2.921000 60 60 60
1.075893 -1.003936 2.921000 64 64 64
1.088687 -1.008748 2.935000 61 61 61
1.096324 -1.008748 2.935000 61 61 61
1.103961 -1.008748 2.935000 64 64 64
1.111599 -1.008748 2.935000 67 66 66
1.119236 -1.008748 2.935000 59 58 58
1.126873 -1.008748 2.935000 59 58 58
1.134511 -1.008748 2.935000 58 57 57
1.142148 -1.008748 2.935000 65 64 64
1.149785 -1.008748 2.935000 60 60 60
1.157423 -1.008748 2.935000 67 67 67
1.165060 -1.008748 2.935000 59 59 59
1.172697 -1.008748 2.935000 62 65 64
1.185965 -1.013559 2.949000 62 65 64
1.193639 -1.013559 2.949000 64 64 64
1.201312 -1.013559 2.949000 60 61 57
1.208986 -1.013559 2.949000 61 62 58
1.216660 -1.013559 2.949000 58 59 55
1.224334 -1.013559 2.949000 57 58 54
1.237856 -1.018371 2.963000 58 62 57
1.245566 -1.018371 2.963000 59 63 58
1.253276 -1.018371 2.963000 60 64 59
1.260987 -1.018371 2.963000 62 63 59
1.268697 -1.018371 2.963000 64 65 61
1.276407 -1.018371 2.963000 60 64 59
1.290185 -1.023183 2.977000 64 68 63
1.297931 -1.023183 2.977000 64 68 63
1.305678 -1.023183 2.977000 66 67 63
1.320042 -1.028338 2.992000 58 59 55
1.327828 -1.028338 2.992000 57 58 54
1.342309 -1.033494 3.007000 57 57 57
1.350134 -1.033494 3.007000 57 57 57
1.357959 -1.033494 3.007000 60 60 60
1.365784 -1.033494 3.007000 60 63 62
1.380004 -1.038305 3.021000 59 62 61
1.387865 -1.038305 3.021000 57 60 61
1.395726 -1.038305 3.021000 58 61 62
1.403587 -1.038305 3.021000 59 62 63
1.418456 -1.043461 3.036000 57 57 57
1.426356 -1.043461 3.036000 53 56 55
1.434256 -1.043461 3.036000 59 62 61
1.442157 -1.043461 3.036000 58 61 60
1.450057 -1.043461 3.036000 58 61 60
1.450753 -1.038305 3.021000 55 58 57
1.458614 -1.038305 3.021000 57 60 59
1.466476 -1.038305 3.021000 59 62 61
1.474337 -1.038305 3.021000 57 60 59
1.482198 -1.038305 3.021000 59 62 61
1.490059 -1.038305 3.021000 58 61 60
1.497920 -1.038305 3.021000 57 60 59
1.505781 -1.038305 3.021000 58 62 57
1.513642 -1.038305 3.021000 59 63 58
1.521503 -1.038305 3.021000 60 64 59
1.529364 -1.038305 3.021000 55 56 52
1.537226 -1.038305 3.021000 57 58 54
-1.429764 -0.925728 2.714000 56 60 55
-1.422702 -0.925728 2.714000 53 57 52
-1.415640 -0.925728 2.714000 48 54 52
-1.402349 -0.921635 2.702000 50 56 54
-1.395318 -0.921635 2.702000 48 54 52
-1.382121 -0.917542 2.690000 53 54 50
-1.381256 -0.921635 2.702000 55 56 52
-1.374225 -0.921635 2.702000 58 59 53
-1.367194 -0.921635 2.702000 58 59 53
-1.360163 -0.921635 2.702000 50 51 45
-1.353132 -0.921635 2.702000 49 49 43
-1.346101 -0.921635 2.702000 50 51 47
-1.339070 -0.921635 2.702000 51 52 48
-1.332039 -0.921635 2.702000 52 53 49
-1.325008 -0.921635 2.702000 55 56 52
-1.317977 -0.921635 2.702000 56 56 52
-1.310946 -0.921635 2.702000 56 56 52
-1.303915 -0.921635 2.702000 53 53 49
-1.296884 -0.921635 2.702000 54 54 50
-1.289853 -0.921635 2.702000 47 48 44
-1.277125 -0.917542 2.690000 50 51 47
-1.270125 -0.917542 2.690000 46 50 45
-1.263125 -0.917542 2.690000 55 56 52
-1.261729 -0.921635 2.702000 60 61 57
-1.254698 -0.921635 2.702000 54 54 48
-1.247667 -0.921635 2.702000 51 52 48
-1.240636 -0.921635 2.702000 53 53 53
-1.233605 -0.921635 2.702000 59 59 53
-1.226574 -0.921635 2.702000 61 61 55
-1.219543 -0.921635 2.702000 61 61 55
-1.212512 -0.921635 2.702000 60 60 54
-1.210834 -0.925728 2.714000 56 56 50
-1.203772 -0.925728 2.714000 54 55 46
-1.196710 -0.925728 2.714000 53 54 45
-1.189648 -0.925728 2.714000 52 53 44
-1.182585 -0.925728 2.714000 53 53 47
-1.175523 -0.925728 2.714000 57 54 49
-1.168461 -0.925728 2.714000 54 49 45
-1.161399 -0.925728 2.714000 54 49 45
-1.159440 -0.929822 2.726000 57 50 44
-1.152347 -0.929822 2.726000 54 47 41
-1.145253 -0.929822 2.726000 56 54 44
-1.138160 -0.929822 2.726000 56 56 50
-1.131066 -0.929822 2.726000 58 58 52
-1.123973 -0.929822 2.726000 56 55 55
-1.116879 -0.929822 2.726000 56 53 50
-1.109786 -0.929822 2.726000 57 54 49
-0.446616 -0.402491 1.180000 56 55 55
-0.442417 -0.401467 1.177000 55 54 54
-0.440475 -0.402491 1.180000 56 55 55
-0.437404 -0.402491 1.180000 61 58 55
-0.435806 -0.403855 1.184000 63 60 57
-0.431994 -0.403173 1.182000 68 62 66
-0.428918 -0.403173 1.182000 71 65 69
-0.425842 -0.403173 1.182000 128 125 120
-0.422767 -0.403173 1.182000 132 130 120
-0.419691 -0.403173 1.182000 130 126 117
-0.416615 -0.403173 1.182000 130 126 117
-0.413539 -0.403173 1.182000 128 124 115
-0.410464 -0.403173 1.182000 126 124 116
-0.408077 -0.403855 1.184000 125 123 115
-0.406707 -0.405560 1.189000 122 120 112
-0.404292 -0.406243 1.191000 130 122 119
-0.401866 -0.406925 1.193000 135 127 124
-0.399764 -0.407948 1.196000 189 184 180
-0.397316 -0.408630 1.198000 191 188 183
-0.395843 -0.410336 1.203000 196 193 188
-0.394019 -0.411700 1.207000 200 197 194
-0.392497 -0.413406 1.212000 202 199 196
-0.388701 -0.412723 1.210000 198 198 194
-0.386190 -0.413406 1.212000 201 201 197
-0.382404 -0.412723 1.210000 205 202 199
-0.379255 -0.412723 1.210000 207 204 199
-0.376107 -0.412723 1.210000 207 204 199
-0.372958 -0.412723 1.210000 209 206 201
-0.369809 -0.412723 1.210000 210 205 201
-0.367267 -0.413406 1.212000 210 207 204
-0.364113 -0.413406 1.212000 211 207 208
-0.360959 -0.413406 1.212000 209 205 206
-0.354651 -0.413406 1.212000 208 207 207
-0.351498 -0.413406 1.212000 207 206 206
-0.349206 -0.414429 1.215000 208 207 207
-0.093422 -0.415793 1.219000 184 184 180
-0.090102 -0.415111 1.217000 184 184 180
-0.086935 -0.415111 1.217000 182 182 178
-0.083768 -0.415111 1.217000 181 181 177
-0.080601 -0.415111 1.217000 180 180 176
-0.077434 -0.415111 1.217000 181 181 177
-0.074267 -0.415111 1.217000 181 180 180
-0.070984 -0.414429 1.215000 182 181 181
-0.067934 -0.415111 1.217000 180 179 179
-0.064767 -0.415111 1.217000 182 181 181
-0.061701 -0.415793 1.219000 181 180 180
-0.058529 -0.415793 1.219000 180 179 179
-0.055494 -0.416817 1.222000 181 180 180
-0.052314 -0.416817 1.222000 181 180 180
-0.049214 -0.417499 1.224000 181 180 180
-0.046029 -0.417499 1.224000 180 179 179
-0.042949 -0.418522 1.227000 180 179 179
-0.039821 -0.419204 1.229000 180 179 179
-0.036623 -0.419204 1.229000 180 179 179
-0.033425 -0.419204 1.229000 179 178 178
-0.030301 -0.420228 1.232000 180 179 179
-0.027139 -0.420910 1.234000 180 179 179
-0.023928 -0.420910 1.234000 179 178 178
-0.020717 -0.420910 1.234000 179 178 178
-0.017506 -0.420910 1.234000 177 176 176
-0.014295 -0.420910 1.234000 177 176 176
-0.011084 -0.420910 1.234000 177 176 176
-0.007873 -0.420910 1.234000 179 178 178
-0.004654 -0.420228 1.232000 179 178 178
-0.001448 -0.420228 1.232000 177 176 176
0.001753 -0.419204 1.229000 177 176 176
0.004943 -0.418522 1.227000 177 176 176
0.008136 -0.418522 1.227000 176 175 175
0.011301 -0.417499 1.224000 177 176 176
0.014486 -0.417499 1.224000 176 175 177
0.017671 -0.417499 1.224000 176 175 175
0.020822 -0.416817 1.222000 177 176 176
0.024002 -0.416817 1.222000 175 174 174
0.027182 -0.416817 1.222000 177 173 174
0.030362 -0.416817 1.222000 177 173 174
0.033542 -0.416817 1.222000 177 173 174
0.036721 -0.416817 1.222000 176 172 173
0.039901 -0.416817 1.222000 177 173 174
0.043081 -0.416817 1.222000 177 173 174
0.046337 -0.417499 1.224000 177 173 174
0.049522 -0.417499 1.224000 177 173 174
0.052707 -0.417499 1.224000 177 173 174
0.056029 -0.418522 1.227000 177 173 174
0.059222 -0.418522 1.227000 177 173 174
0.062516 -0.419204 1.229000 176 172 173
0.065714 -0.419204 1.229000 177 173 176
0.068912 -0.419204 1.229000 177 173 176
0.072286 -0.420228 1.232000 178 174 177
0.075492 -0.420228 1.232000 177 173 174
0.078698 -0.420228 1.232000 178 174 175
0.082037 -0.420910 1.234000 176 172 173
0.085248 -0.420910 1.234000 175 171 172
0.088459 -0.420910 1.234000 176 172 173
0.091670 -0.420910 1.234000 177 173 174
0.094881 -0.420910 1.234000 176 172 173
0.098331 -0.421933 1.237000 177 173 174
0.101550 -0.421933 1.237000 177 173 174
0.104768 -0.421933 1.237000 178 174 175
0.107987 -0.421933 1.237000 177 173 174
0.110936 -0.420910 1.234000 177 173 174
0.114147 -0.420910 1.234000 177 173 174
0.117359 -0.420910 1.234000 176 172 173
0.120374 -0.420228 1.232000 177 173 174
0.123580 -0.420228 1.232000 177 173 174
0.126786 -0.420228 1.232000 177 173 174
0.129992 -0.420228 1.232000 177 173 174
0.133198 -0.420228 1.232000 178 174 175
0.136403 -0.420228 1.232000 177 173 174
0.139609 -0.420228 1.232000 178 174 175
0.142815 -0.420228 1.232000 177 173 174
0.146021 -0.420228 1.232000 177 173 174
0.149227 -0.420228 1.232000 177 173 174
0.152433 -0.420228 1.232000 177 173 176
0.155639 -0.420228 1.232000 177 173 176
0.158844 -0.420228 1.232000 176 172 175
0.162313 -0.420910 1.234000 178 174 177
0.165524 -0.420910 1.234000 178 174 177
0.168735 -0.420910 1.234000 177 173 176
0.172365 -0.421933 1.237000 175 174 176
0.175583 -0.421933 1.237000 175 174 176
0.178802 -0.421933 1.237000 175 174 176
0.182021 -0.421933 1.237000 176 175 177
0.185240 -0.421933 1.237000 176 175 177
0.188764 -0.422615 1.239000 176 175 175
0.191988 -0.422615 1.239000 175 174 174
0.195212 -0.422615 1.239000 175 174 174
0.198436 -0.422615 1.239000 175 174 174
0.201334 -0.421933 1.237000 176 175 175
0.204553 -0.421933 1.237000 176 175 175
0.207268 -0.420910 1.234000 176 175 177
0.210479 -0.420910 1.234000 176 175 177
0.213690 -0.420910 1.234000 177 176 178
0.216901 -0.420910 1.234000 176 175 177
0.220112 -0.420910 1.234000 177 176 178
0.223323 -0.420910 1.234000 177 176 176
0.226535 -0.420910 1.234000 179 178 178
0.229746 -0.420910 1.234000 177 176 176
0.233523 -0.421933 1.237000 179 178 178
0.236742 -0.421933 1.237000 179 178 178
0.240349 -0.422615 1.239000 180 179 179
0.243573 -0.422615 1.239000 179 178 178
0.246797 -0.422615 1.239000 180 179 179
0.250021 -0.422615 1.239000 180 179 179
0.253245 -0.422615 1.239000 179 178 178
0.256469 -0.422615 1.239000 180 179 179
0.259693 -0.422615 1.239000 181 180 180
0.263554 -0.423638 1.242000 181 180 180
0.266786 -0.423638 1.242000 181 180 180
0.270018 -0.423638 1.242000 182 181 181
0.273249 -0.423638 1.242000 181 180 180
0.276926 -0.424321 1.244000 181 180 180
0.280164 -0.424321 1.244000 181 180 180
0.283401 -0.424321 1.244000 182 181 181
0.286638 -0.424321 1.244000 181 180 180
0.289875 -0.424321 1.244000 181 180 180
0.293819 -0.425344 1.247000 182 181 181
0.296349 -0.424321 1.244000 182 181 181
0.300308 -0.425344 1.247000 183 182 182
0.303553 -0.425344 1.247000 182 181 181
0.306060 -0.424321 1.244000 182 181 181
0.309297 -0.424321 1.244000 182 181 181
0.312534 -0.424321 1.244000 182 181 181
0.315771 -0.424321 1.244000 182 181 181
0.319778 -0.425344 1.247000 183 182 182
0.323023 -0.425344 1.247000 183 182 182
0.326268 -0.425344 1.247000 183 182 182
0.329512 -0.425344 1.247000 184 183 183
0.332757 -0.425344 1.247000 184 183 183
0.336002 -0.425344 1.247000 183 182 182
0.339247 -0.425344 1.247000 183 182 182
0.342492 -0.425344 1.247000 181 181 177
0.345737 -0.425344 1.247000 180 180 176
0.348982 -0.425344 1.247000 182 182 178
0.352227 -0.425344 1.247000 184 181 178
0.355472 -0.425344 1.247000 184 181 176
0.358716 -0.425344 1.247000 188 185 180
0.361961 -0.425344 1.247000 188 185 182
0.364328 -0.424321 1.244000 188 185 182
0.368451 -0.425344 1.247000 184 184 180
0.371696 -0.425344 1.247000 183 183 179
0.375542 -0.426026 1.249000 181 181 177
0.378792 -0.426026 1.249000 178 174 177
0.382960 -0.427049 1.252000 170 166 169
0.386835 -0.427732 1.254000 154 150 151
0.391031 -0.428755 1.257000 122 119 116
0.394929 -0.429437 1.259000 114 111 106
0.399154 -0.430460 1.262000 115 112 107
0.404033 -0.432166 1.267000 118 115 110
0.407330 -0.432166 1.267000 119 116 111
0.410627 -0.432166 1.267000 120 118 110
0.414904 -0.433189 1.270000 124 122 114
0.418208 -0.433189 1.270000 119 120 111
0.421513 -0.433189 1.270000 119 120 111
0.425821 -0.434212 1.273000 117 118 109
0.429134 -0.434212 1.273000 118 119 110
0.432447 -0.434212 1.273000 119 120 111
0.435759 -0.434212 1.273000 120 121 112
0.439761 -0.434895 1.275000 122 123 114
0.443079 -0.434895 1.275000 124 125 114
0.447447 -0.435918 1.278000 123 124 113
1.032914 -0.991560 2.907000 123 124 113
1.040478 -0.991560 2.907000 123 124 113
1.048043 -0.991560 2.907000 115 116 112
1.060691 -0.996335 2.921000 66 65 67
1.068292 -0.996335 2.921000 68 67 67
1.075893 -0.996335 2.921000 67 67 63
1.083494 -0.996335 2.921000 62 62 58
1.091095 -0.996335 2.921000 64 64 64
1.098696 -0.996335 2.921000 66 66 66
1.106296 -0.996335 2.921000 65 65 65
1.113897 -0.996335 2.921000 62 62 62
1.121498 -0.996335 2.921000 60 60 60
1.129099 -0.996335 2.921000 62 62 62
1.136700 -0.996335 2.921000 67 67 67
1.144301 -0.996335 2.921000 66 66 66
1.151902 -0.996335 2.921000 64 64 64
1.159503 -0.996335 2.921000 61 61 61
1.167104 -0.996335 2.921000 63 66 65
1.174704 -0.996335 2.921000 59 62 61
1.187972 -1.001110 2.935000 61 61 61
1.195609 -1.001110 2.935000 58 58 58
1.203247 -1.001110 2.935000 58 58 58
1.210884 -1.001110 2.935000 64 65 61
1.218521 -1.001110 2.935000 59 60 56
1.226159 -1.001110 2.935000 59 62 61
1.239681 -1.005885 2.949000 59 62 61
1.247355 -1.005885 2.949000 60 63 62
1.255029 -1.005885 2.949000 60 60 60
1.262702 -1.005885 2.949000 64 65 61
1.276407 -1.010661 2.963000 62 63 59
1.284117 -1.010661 2.963000 62 63 59
1.291827 -1.010661 2.963000 62 63 59
1.299538 -1.010661 2.963000 62 63 59
1.313424 -1.015436 2.977000 57 57 57
1.321171 -1.015436 2.977000 55 55 55
1.328918 -1.015436 2.977000 57 57 57
1.343399 -1.020553 2.992000 59 59 59
1.351185 -1.020553 2.992000 57 57 57
1.358971 -1.020553 2.992000 59 59 59
1.373608 -1.025669 3.007000 61 62 58
1.381433 -1.025669 3.007000 58 59 55
1.389258 -1.025669 3.007000 59 60 56
1.403587 -1.030444 3.021000 58 59 55
1.411448 -1.030444 3.021000 55 55 55
1.419309 -1.030444 3.021000 57 57 57
1.427170 -1.030444 3.021000 59 62 61
1.435031 -1.030444 3.021000 62 65 64
1.442892 -1.030444 3.021000 57 60 59
1.450753 -1.030444 3.021000 57 57 57
1.458614 -1.030444 3.021000 60 60 60
1.466476 -1.030444 3.021000 64 64 64
1.467504 -1.025669 3.007000 60 60 60
1.475329 -1.025669 3.007000 60 60 60
1.483154 -1.025669 3.007000 58 58 58
1.490978 -1.025669 3.007000 56 59 58
1.498803 -1.025669 3.007000 59 62 61
1.506628 -1.025669 3.007000 58 61 60
1.514452 -1.025669 3.007000 60 63 62
1.522277 -1.025669 3.007000 59 62 61
1.530102 -1.025669 3.007000 57 60 59
-1.417120 -0.910542 2.690000 60 64 59
-1.410121 -0.910542 2.690000 56 63 57
-1.403121 -0.910542 2.690000 51 57 55
-1.396121 -0.910542 2.690000 54 60 58
-1.389121 -0.910542 2.690000 57 60 59
-1.375956 -0.906481 2.678000 58 62 57
-1.375122 -0.910542 2.690000 67 71 66
-1.368122 -0.910542 2.690000 58 62 57
-1.361122 -0.910542 2.690000 57 61 56
-1.354122 -0.910542 2.690000 53 57 50
-1.347123 -0.910542 2.690000 56 60 53
-1.340123 -0.910542 2.690000 59 60 56
-1.333123 -0.910542 2.690000 57 60 59
-1.326123 -0.910542 2.690000 59 62 61
-1.319123 -0.910542 2.690000 53 59 57
-1.312124 -0.910542 2.690000 55 58 57
-1.305124 -0.910542 2.690000 57 58 54
-1.298124 -0.910542 2.690000 61 61 57
-1.291124 -0.910542 2.690000 63 63 59
-1.284124 -0.910542 2.690000 58 59 55
-1.277125 -0.910542 2.690000 58 62 57
-1.270125 -0.910542 2.690000 53 57 52
-1.263125 -0.910542 2.690000 54 55 51
-1.256125 -0.910542 2.690000 55 56 52
-1.249125 -0.910542 2.690000 56 60 53
-1.242126 -0.910542 2.690000 55 59 52
-1.235126 -0.910542 2.690000 55 59 54
-1.233605 -0.914604 2.702000 56 60 53
-1.226574 -0.914604 2.702000 57 61 54
-1.219543 -0.914604 2.702000 60 61 55
-1.212512 -0.914604 2.702000 59 60 54
-1.205481 -0.914604 2.702000 55 56 52
-1.198450 -0.914604 2.702000 54 54 50
-1.191419 -0.914604 2.702000 58 58 54
-1.189648 -0.918666 2.714000 53 54 50
-1.182585 -0.918666 2.714000 51 52 46
-1.175523 -0.918666 2.714000 67 67 61
-1.168461 -0.918666 2.714000 62 62 58
-1.161399 -0.918666 2.714000 62 62 58
-1.154336 -0.918666 2.714000 62 63 59
-1.147274 -0.918666 2.714000 60 61 55
-1.140212 -0.918666 2.714000 55 55 49
-1.138160 -0.922728 2.726000 59 60 54
-1.126087 -0.918666 2.714000 55 56 50
-1.119025 -0.918666 2.714000 58 58 58
-1.111963 -0.918666 2.714000 54 55 51
-1.104901 -0.918666 2.714000 57 58 54
-1.097838 -0.918666 2.714000 58 59 55
-0.442417 -0.398405 1.177000 53 52 52
-0.437404 -0.399420 1.180000 58 55 52
-0.434333 -0.399420 1.180000 62 59 56
-0.431263 -0.399420 1.180000 60 51 56
-0.427104 -0.398405 1.177000 130 123 117
-0.425122 -0.399420 1.180000 132 125 119
-0.422051 -0.399420 1.180000 135 128 120
-0.418981 -0.399420 1.180000 134 127 119
-0.415910 -0.399420 1.180000 129 125 116
-0.413539 -0.400097 1.182000 128 124 115
-0.410464 -0.400097 1.182000 127 123 114
-0.408767 -0.401451 1.186000 127 123 114
-0.406707 -0.402467 1.189000 128 124 115
-0.404292 -0.403144 1.191000 138 128 126
-0.401866 -0.403821 1.193000 143 133 131
-0.400433 -0.405513 1.198000 190 185 183
-0.397979 -0.406190 1.200000 193 190 187
-0.396502 -0.407882 1.205000 197 193 194
-0.394019 -0.408559 1.207000 202 198 199
-0.392497 -0.410252 1.212000 202 198 199
-0.389343 -0.410252 1.212000 205 201 202
-0.386190 -0.410252 1.212000 205 202 199
-0.383036 -0.410252 1.212000 206 203 198
-0.379255 -0.409575 1.210000 210 205 201
-0.376107 -0.409575 1.210000 211 206 202
-0.373574 -0.410252 1.212000 210 205 201
-0.370421 -0.410252 1.212000 210 205 201
-0.367267 -0.410252 1.212000 210 207 204
-0.364113 -0.410252 1.212000 211 207 208
-0.354651 -0.410252 1.212000 210 206 207
-0.350918 -0.409575 1.210000 210 206 207
-0.347769 -0.409575 1.210000 210 206 207
-0.093268 -0.411944 1.217000 186 186 182
-0.089954 -0.411267 1.215000 184 184 180
-0.086792 -0.411267 1.215000 183 183 179
-0.083630 -0.411267 1.215000 183 183 179
-0.080469 -0.411267 1.215000 181 181 177
-0.077307 -0.411267 1.215000 182 182 178
-0.074145 -0.411267 1.215000 183 182 182
-0.070984 -0.411267 1.215000 183 182 182
-0.067822 -0.411267 1.215000 181 180 180
-0.064661 -0.411267 1.215000 182 181 181
-0.061600 -0.411944 1.217000 182 181 181
-0.058433 -0.411944 1.217000 180 179 179
-0.055267 -0.411944 1.217000 181 180 180
-0.052100 -0.411944 1.217000 181 180 180
-0.049013 -0.412621 1.219000 181 180 180
-0.045841 -0.412621 1.219000 181 180 180
-0.042774 -0.413637 1.222000 181 180 180
-0.039659 -0.414314 1.224000 181 180 182
-0.036474 -0.414314 1.224000 180 179 179
-0.033371 -0.415329 1.227000 180 179 179
-0.030227 -0.416006 1.229000 180 179 179
-0.027029 -0.416006 1.229000 180 179 179
-0.023831 -0.416006 1.229000 180 179 179
-0.020683 -0.417022 1.232000 180 179 179
-0.017478 -0.417022 1.232000 180 179 179
-0.014272 -0.417022 1.232000 180 179 179
-0.011066 -0.417022 1.232000 179 178 178
-0.007841 -0.416006 1.229000 179 178 178
-0.004643 -0.416006 1.229000 180 179 179
-0.001442 -0.415329 1.227000 179 178 178
0.001746 -0.414314 1.224000 179 178 178
0.004931 -0.414314 1.224000 179 178 178
0.008103 -0.413637 1.222000 177 176 178
0.011283 -0.413637 1.222000 177 176 178
0.014463 -0.413637 1.222000 177 176 178
0.017599 -0.412621 1.219000 177 176 178
0.020771 -0.412621 1.219000 179 178 180
0.023943 -0.412621 1.219000 177 176 178
0.027115 -0.412621 1.219000 176 175 177
0.030287 -0.412621 1.219000 176 175 177
0.033404 -0.411944 1.217000 175 174 176
0.036631 -0.412621 1.219000 175 174 176
0.039803 -0.412621 1.219000 176 175 177
0.042975 -0.412621 1.219000 176 175 175
0.046261 -0.413637 1.222000 176 175 175
0.049441 -0.413637 1.222000 178 174 175
0.052621 -0.413637 1.222000 178 174 175
0.055892 -0.414314 1.224000 177 173 174
0.059077 -0.414314 1.224000 178 174 175
0.062262 -0.414314 1.224000 177 173 176
0.065607 -0.415329 1.227000 177 173 176
0.068800 -0.415329 1.227000 177 173 176
0.072110 -0.416006 1.229000 178 174 177
0.075308 -0.416006 1.229000 178 174 177
0.078506 -0.416006 1.229000 178 174 177
0.081704 -0.416006 1.229000 177 173 176
0.084903 -0.416006 1.229000 177 173 176
0.088316 -0.417022 1.232000 177 173 176
0.091522 -0.417022 1.232000 178 174 177
0.094727 -0.417022 1.232000 178 174 177
0.097933 -0.417022 1.232000 178 174 177
0.101139 -0.417022 1.232000 178 174 177
0.104345 -0.417022 1.232000 178 174 177
0.107551 -0.417022 1.232000 177 173 176
0.110757 -0.417022 1.232000 177 173 176
0.113962 -0.417022 1.232000 177 173 174
0.117168 -0.417022 1.232000 177 173 174
0.120374 -0.417022 1.232000 177 173 174
0.123279 -0.416006 1.229000 177 173 174
0.126477 -0.416006 1.229000 177 173 174
0.129675 -0.416006 1.229000 177 173 174
0.132873 -0.416006 1.229000 178 174 175
0.136071 -0.416006 1.229000 178 174 175
0.139269 -0.416006 1.229000 178 174 175
0.142467 -0.416006 1.229000 177 173 174
0.145665 -0.416006 1.229000 177 173 174
0.148863 -0.416006 1.229000 177 173 174
0.152062 -0.416006 1.229000 177 173 176
0.155639 -0.417022 1.232000 177 173 176
0.158458 -0.416006 1.229000 177 173 176
0.162050 -0.417022 1.232000 178 174 177
0.165256 -0.417022 1.232000 178 174 177
0.168735 -0.417699 1.234000 177 173 176
0.171947 -0.417699 1.234000 178 174 177
0.175158 -0.417699 1.234000 175 174 176
0.178802 -0.418714 1.237000 175 174 176
0.181580 -0.417699 1.234000 176 175 177
0.184791 -0.417699 1.234000 176 175 177
0.188002 -0.417699 1.234000 176 175 177
0.191678 -0.418714 1.237000 175 174 174
0.194897 -0.418714 1.237000 176 175 175
0.198115 -0.418714 1.237000 176 175 175
0.201334 -0.418714 1.237000 176 175 175
0.204057 -0.417699 1.234000 175 174 174
0.207268 -0.417699 1.234000 176 175 177
0.210138 -0.417022 1.232000 176 175 177
0.213690 -0.417699 1.234000 177 176 178
0.216901 -0.417699 1.234000 176 175 177
0.219756 -0.417022 1.232000 179 178 178
0.222962 -0.417022 1.232000 177 176 176
0.226167 -0.417022 1.232000 179 178 178
0.229373 -0.417022 1.232000 177 176 176
0.232957 -0.417699 1.234000 179 178 178
0.236168 -0.417699 1.234000 179 178 178
0.239379 -0.417699 1.234000 179 178 178
0.242590 -0.417699 1.234000 179 178 178
0.245801 -0.417699 1.234000 180 179 179
0.249012 -0.417699 1.234000 180 179 179
0.252223 -0.417699 1.234000 179 178 178
0.256055 -0.418714 1.237000 180 179 179
0.259274 -0.418714 1.237000 181 180 180
0.262493 -0.418714 1.237000 181 180 180
0.266141 -0.419391 1.239000 181 180 180
0.269365 -0.419391 1.239000 181 180 180
0.272589 -0.419391 1.239000 181 180 180
0.275813 -0.419391 1.239000 181 180 180
0.279038 -0.419391 1.239000 181 180 180
0.282262 -0.419391 1.239000 181 180 180
0.286177 -0.420407 1.242000 181 180 180
0.289409 -0.420407 1.242000 181 180 180
0.292641 -0.420407 1.242000 182 181 181
0.295873 -0.420407 1.242000 182 181 181
0.299104 -0.420407 1.242000 183 182 182
0.302336 -0.420407 1.242000 182 181 181
0.304830 -0.419391 1.239000 182 181 181
0.308054 -0.419391 1.239000 182 181 181
0.311278 -0.419391 1.239000 182 181 181
0.314502 -0.419391 1.239000 182 181 181
0.317726 -0.419391 1.239000 183 182 182
0.320950 -0.419391 1.239000 183 182 182
0.324959 -0.420407 1.242000 183 182 182
0.328191 -0.420407 1.242000 184 183 183
0.331423 -0.420407 1.242000 184 183 183
0.334655 -0.420407 1.242000 183 182 182
0.337887 -0.420407 1.242000 184 183 183
0.341119 -0.420407 1.242000 181 181 177
0.344351 -0.420407 1.242000 181 181 177
0.348142 -0.421084 1.244000 182 182 178
0.350814 -0.420407 1.242000 184 181 178
0.354616 -0.421084 1.244000 184 181 176
0.357853 -0.421084 1.244000 186 183 178
0.360510 -0.420407 1.242000 188 185 182
0.363742 -0.420407 1.242000 188 185 182
0.366974 -0.420407 1.242000 183 183 179
0.370802 -0.421084 1.244000 183 183 179
0.374941 -0.422099 1.247000 182 182 178
0.378186 -0.422099 1.247000 179 178 178
0.382042 -0.422776 1.249000 175 174 174
0.385293 -0.422776 1.249000 165 162 159
0.390098 -0.424469 1.254000 149 144 142
0.394302 -0.425484 1.257000 113 110 107
0.398206 -0.426161 1.259000 115 112 107
0.403395 -0.428192 1.265000 117 114 109
0.406687 -0.428192 1.265000 119 116 111
0.409979 -0.428192 1.265000 119 116 111
0.413924 -0.428869 1.267000 120 121 112
0.418208 -0.429884 1.270000 119 120 111
0.421513 -0.429884 1.270000 119 120 111
0.424818 -0.429884 1.270000 118 119 110
0.429134 -0.430900 1.273000 118 119 110
0.432447 -0.430900 1.273000 118 119 110
0.436444 -0.431577 1.275000 120 121 112
0.439072 -0.430900 1.273000 123 124 115
0.443079 -0.431577 1.275000 122 123 114
0.446397 -0.431577 1.275000 123 124 115
0.449715 -0.431577 1.275000 123 125 116
1.040478 -0.983995 2.907000 123 124 115
1.048043 -0.983995 2.907000 119 121 112
1.055607 -0.983995 2.907000 98 94 95
1.063172 -0.983995 2.907000 77 73 74
1.075893 -0.988734 2.921000 69 69 65
1.078301 -0.983995 2.907000 66 66 62
1.085865 -0.983995 2.907000 62 62 58
1.093430 -0.983995 2.907000 67 68 64
1.106296 -0.988734 2.921000 66 67 63
1.113897 -0.988734 2.921000 61 62 58
1.121498 -0.988734 2.921000 62 63 59
1.129099 -0.988734 2.921000 58 59 55
1.136700 -0.988734 2.921000 59 60 56
1.144301 -0.988734 2.921000 59 62 61
1.151902 -0.988734 2.921000 62 65 64
1.159503 -0.988734 2.921000 60 63 62
1.167104 -0.988734 2.921000 60 63 62
1.174704 -0.988734 2.921000 62 62 62
1.182305 -0.988734 2.921000 62 62 62
1.189906 -0.988734 2.921000 62 62 62
1.197507 -0.988734 2.921000 60 60 60
1.205108 -0.988734 2.921000 62 62 62
1.218521 -0.993473 2.935000 61 61 61
1.226159 -0.993473 2.935000 59 62 61
1.233796 -0.993473 2.935000 59 62 61
1.241433 -0.993473 2.935000 60 63 62
1.249071 -0.993473 2.935000 57 60 59
1.256708 -0.993473 2.935000 58 62 57
1.270376 -0.998212 2.949000 57 61 56
1.278050 -0.998212 2.949000 58 62 57
1.285724 -0.998212 2.949000 59 63 58
1.299538 -1.002951 2.963000 59 63 58
1.307248 -1.002951 2.963000 56 59 58
1.314958 -1.002951 2.963000 55 58 57
1.328918 -1.007690 2.977000 59 59 59
1.336664 -1.007690 2.977000 58 58 58
1.344411 -1.007690 2.977000 57 57 57
1.358971 -1.012767 2.992000 59 59 59
1.366756 -1.012767 2.992000 60 61 57
1.374542 -1.012767 2.992000 58 59 55
1.389258 -1.017844 3.007000 59 60 56
1.397082 -1.017844 3.007000 58 59 55
1.404907 -1.017844 3.007000 58 59 55
1.412732 -1.017844 3.007000 57 58 54
1.420556 -1.017844 3.007000 59 63 58
1.428381 -1.017844 3.007000 62 66 61
1.436206 -1.017844 3.007000 56 60 55
1.444030 -1.017844 3.007000 59 59 59
1.451855 -1.017844 3.007000 62 62 62
1.459680 -1.017844 3.007000 64 64 64
1.467504 -1.017844 3.007000 62 62 62
1.475329 -1.017844 3.007000 61 61 61
1.483154 -1.017844 3.007000 56 59 58
1.490978 -1.017844 3.007000 56 59 58
1.491326 -1.012767 2.992000 59 62 61
1.499112 -1.012767 2.992000 59 62 61
1.506898 -1.012767 2.992000 59 62 61
1.514683 -1.012767 2.992000 60 63 62
1.522469 -1.012767 2.992000 57 60 59
-1.410799 -0.899512 2.678000 64 68 63
-1.398064 -0.895817 2.667000 62 69 63
-1.396862 -0.899512 2.678000 55 64 57
-1.389893 -0.899512 2.678000 54 63 56
-1.382925 -0.899512 2.678000 64 64 64
-1.375956 -0.899512 2.678000 63 66 65
-1.368987 -0.899512 2.678000 67 73 71
-1.362019 -0.899512 2.678000 61 67 65
-1.355050 -0.899512 2.678000 58 64 62
-1.348082 -0.899512 2.678000 60 64 59
-1.341113 -0.899512 2.678000 57 64 58
-1.334145 -0.899512 2.678000 63 70 64
-1.327176 -0.899512 2.678000 58 61 60
-1.320207 -0.899512 2.678000 59 62 61
-1.319123 -0.903543 2.690000 58 61 60
-1.312124 -0.903543 2.690000 62 65 64
-1.305124 -0.903543 2.690000 66 70 65
-1.298124 -0.903543 2.690000 66 67 63
-1.285365 -0.899512 2.678000 68 69 65
-1.278396 -0.899512 2.678000 65 66 62
-1.271428 -0.899512 2.678000 59 60 56
-1.264459 -0.899512 2.678000 56 60 55
-1.257490 -0.899512 2.678000 60 64 59
-1.256125 -0.903543 2.690000 63 67 62
-1.249125 -0.903543 2.690000 58 65 57
-1.242126 -0.903543 2.690000 58 65 57
-1.240636 -0.907573 2.702000 60 64 57
-1.233605 -0.907573 2.702000 60 64 59
-1.226574 -0.907573 2.702000 58 62 57
-1.219543 -0.907573 2.702000 58 62 57
-1.212512 -0.907573 2.702000 59 60 54
-1.205481 -0.907573 2.702000 67 67 61
-1.198450 -0.907573 2.702000 65 66 60
-1.191419 -0.907573 2.702000 67 68 62
-1.184388 -0.907573 2.702000 64 65 59
-1.177357 -0.907573 2.702000 59 60 54
-1.170326 -0.907573 2.702000 66 67 63
-1.163294 -0.907573 2.702000 65 66 62
-1.156263 -0.907573 2.702000 65 66 62
-1.154336 -0.911604 2.714000 62 66 61
-1.147274 -0.911604 2.714000 59 63 58
-1.140212 -0.911604 2.714000 59 60 56
-1.133150 -0.911604 2.714000 59 60 56
-1.126087 -0.911604 2.714000 57 58 54
-1.119025 -0.911604 2.714000 59 62 61
-1.111963 -0.911604 2.714000 62 66 61
-1.104901 -0.911604 2.714000 57 61 56
-1.097838 -0.911604 2.714000 60 67 61
-1.090776 -0.911604 2.714000 61 68 62
-1.083714 -0.911604 2.714000 58 65 59
-1.071891 -0.907573 2.702000 64 65 61
-1.060131 -0.903543 2.690000 61 62 58
-0.433229 -0.395342 1.177000 64 60 61
-0.430167 -0.395342 1.177000 62 56 58
-0.427104 -0.395342 1.177000 134 127 121
-0.424041 -0.395342 1.177000 134 127 121
-0.420978 -0.395342 1.177000 136 129 121
-0.417916 -0.395342 1.177000 136 129 121
-0.414853 -0.395342 1.177000 129 125 116
-0.412840 -0.396350 1.180000 127 123 114
-0.409769 -0.396350 1.180000 125 121 112
-0.408077 -0.397693 1.184000 125 121 112
-0.406707 -0.399373 1.189000 125 121 112
-0.404292 -0.400044 1.191000 139 129 127
-0.401866 -0.400716 1.193000 143 133 131
-0.400433 -0.402396 1.198000 190 184 186
-0.397979 -0.403067 1.200000 196 192 193
-0.396502 -0.404747 1.205000 198 194 195
-0.394998 -0.406426 1.210000 202 198 199
-0.393469 -0.408106 1.215000 203 199 200
-0.390307 -0.408106 1.215000 205 201 202
-0.386190 -0.407098 1.212000 209 206 203
-0.383036 -0.407098 1.212000 205 202 197
-0.379882 -0.407098 1.212000 210 205 201
-0.376728 -0.407098 1.212000 211 206 202
-0.373574 -0.407098 1.212000 211 206 202
-0.370421 -0.407098 1.212000 211 206 202
-0.367267 -0.407098 1.212000 211 208 205
-0.357215 -0.406426 1.210000 211 207 208
-0.354066 -0.406426 1.210000 210 206 207
-0.350918 -0.406426 1.210000 210 206 207
-0.347769 -0.406426 1.210000 209 205 206
-0.344620 -0.406426 1.210000 209 205 206
-0.089954 -0.408106 1.215000 184 183 183
-0.086792 -0.408106 1.215000 183 182 182
-0.083630 -0.408106 1.215000 183 182 182
-0.080469 -0.408106 1.215000 183 182 182
-0.077307 -0.408106 1.215000 183 182 182
-0.073962 -0.407098 1.212000 184 183 183
-0.070809 -0.407098 1.212000 183 182 182
-0.067655 -0.407098 1.212000 183 182 182
-0.064661 -0.408106 1.215000 182 181 181
-0.061499 -0.408106 1.215000 182 181 181
-0.058337 -0.408106 1.215000 181 180 180
-0.055176 -0.408106 1.215000 181 180 180
-0.052014 -0.408106 1.215000 181 180 180
-0.048853 -0.408106 1.215000 182 181 181
-0.045766 -0.408777 1.217000 181 180 182
-0.042669 -0.409449 1.219000 181 180 182
-0.039594 -0.410457 1.222000 181 180 182
-0.036415 -0.410457 1.222000 181 180 180
-0.033235 -0.410457 1.222000 181 180 180
-0.030104 -0.411129 1.224000 180 179 179
-0.026919 -0.411129 1.224000 180 179 179
-0.023792 -0.412136 1.227000 181 180 180
-0.020633 -0.412808 1.229000 180 179 179
-0.017435 -0.412808 1.229000 180 179 179
-0.014237 -0.412808 1.229000 180 179 179
-0.011021 -0.412136 1.227000 179 178 178
-0.007809 -0.411129 1.224000 179 178 180
-0.004624 -0.411129 1.224000 180 179 181
-0.001436 -0.410457 1.222000 179 178 180
0.001743 -0.410457 1.222000 179 178 180
0.004911 -0.409449 1.219000 179 178 180
0.008083 -0.409449 1.219000 177 176 178
0.011237 -0.408777 1.217000 177 176 178
0.014403 -0.408777 1.217000 177 176 178
0.017570 -0.408777 1.217000 181 177 180
0.020703 -0.408106 1.215000 181 177 180
0.023865 -0.408106 1.215000 179 178 180
0.027026 -0.408106 1.215000 177 176 178
0.030188 -0.408106 1.215000 177 176 178
0.033350 -0.408106 1.215000 175 174 176
0.036511 -0.408106 1.215000 175 174 176
0.039738 -0.408777 1.217000 176 175 177
0.042905 -0.408777 1.217000 176 175 177
0.046072 -0.408777 1.217000 176 175 177
0.049239 -0.408777 1.217000 177 176 178
0.052491 -0.409449 1.219000 176 175 177
0.055663 -0.409449 1.219000 176 175 175
0.058980 -0.410457 1.222000 178 174 175
0.062160 -0.410457 1.222000 177 173 176
0.065340 -0.410457 1.222000 177 173 178
0.068632 -0.411129 1.224000 178 174 179
0.071817 -0.411129 1.224000 178 174 177
0.075002 -0.411129 1.224000 178 174 177
0.078379 -0.412136 1.227000 178 174 177
0.081572 -0.412136 1.227000 178 174 177
0.084764 -0.412136 1.227000 177 173 176
0.087957 -0.412136 1.227000 178 174 177
0.091299 -0.412808 1.229000 178 174 177
0.094497 -0.412808 1.229000 178 174 177
0.097695 -0.412808 1.229000 178 174 177
0.100893 -0.412808 1.229000 178 174 177
0.104091 -0.412808 1.229000 178 174 177
0.107289 -0.412808 1.229000 177 173 176
0.110307 -0.412136 1.227000 177 173 176
0.113500 -0.412136 1.227000 177 173 176
0.116693 -0.412136 1.227000 177 173 176
0.119886 -0.412136 1.227000 177 173 176
0.123078 -0.412136 1.227000 177 173 176
0.126271 -0.412136 1.227000 178 174 177
0.129464 -0.412136 1.227000 178 174 177
0.132333 -0.411129 1.224000 178 174 177
0.135518 -0.411129 1.224000 179 175 176
0.138703 -0.411129 1.224000 179 175 176
0.141888 -0.411129 1.224000 178 174 175
0.145073 -0.411129 1.224000 178 174 175
0.148621 -0.412136 1.227000 178 174 175
0.151814 -0.412136 1.227000 177 173 176
0.155007 -0.412136 1.227000 177 173 176
0.158200 -0.412136 1.227000 177 173 176
0.161656 -0.412808 1.229000 178 174 177
0.164854 -0.412808 1.229000 178 174 177
0.168462 -0.413816 1.232000 178 174 177
0.171668 -0.413816 1.232000 178 174 177
0.174874 -0.413816 1.232000 176 175 177
0.178080 -0.413816 1.232000 177 176 178
0.181285 -0.413816 1.232000 177 176 178
0.184491 -0.413816 1.232000 177 176 178
0.187697 -0.413816 1.232000 177 176 178
0.190903 -0.413816 1.232000 177 176 178
0.194109 -0.413816 1.232000 176 175 177
0.197315 -0.413816 1.232000 177 176 178
0.200521 -0.413816 1.232000 177 176 178
0.203726 -0.413816 1.232000 176 175 175
0.206932 -0.413816 1.232000 176 175 175
0.210138 -0.413816 1.232000 177 176 176
0.213344 -0.413816 1.232000 179 178 178
0.216550 -0.413816 1.232000 177 176 176
0.219221 -0.412808 1.229000 179 178 178
0.222419 -0.412808 1.229000 179 178 178
0.225617 -0.412808 1.229000 179 178 178
0.229373 -0.413816 1.232000 177 176 176
0.232579 -0.413816 1.232000 179 178 178
0.235785 -0.413816 1.232000 179 178 178
0.238991 -0.413816 1.232000 180 179 179
0.242590 -0.414488 1.234000 180 179 179
0.245801 -0.414488 1.234000 180 179 179
0.249012 -0.414488 1.234000 179 178 178
0.252223 -0.414488 1.234000 179 178 178
0.255434 -0.414488 1.234000 180 179 179
0.258645 -0.414488 1.234000 181 180 180
0.261856 -0.414488 1.234000 181 180 180
0.265067 -0.414488 1.234000 181 180 180
0.268930 -0.415495 1.237000 181 180 180
0.272149 -0.415495 1.237000 181 180 180
0.275368 -0.415495 1.237000 181 180 180
0.279038 -0.416167 1.239000 182 181 181
0.282262 -0.416167 1.239000 181 180 180
0.285025 -0.415495 1.237000 181 180 180
0.288244 -0.415495 1.237000 181 180 180
0.291463 -0.415495 1.237000 182 181 181
0.294681 -0.415495 1.237000 182 181 181
0.297178 -0.414488 1.234000 182 181 181
0.301119 -0.415495 1.237000 183 182 182
0.304338 -0.415495 1.237000 183 182 182
0.307557 -0.415495 1.237000 183 182 182
0.310022 -0.414488 1.234000 182 181 181
0.313233 -0.414488 1.234000 182 181 181
0.316444 -0.414488 1.234000 183 182 182
0.319655 -0.414488 1.234000 183 182 182
0.323651 -0.415495 1.237000 183 182 182
0.326870 -0.415495 1.237000 184 183 183
0.330089 -0.415495 1.237000 184 183 183
0.333847 -0.416167 1.239000 183 182 182
0.337071 -0.416167 1.239000 184 183 183
0.340295 -0.416167 1.239000 182 181 181
0.343519 -0.416167 1.239000 182 182 178
0.346743 -0.416167 1.239000 182 182 178
0.349967 -0.416167 1.239000 182 182 178
0.353191 -0.416167 1.239000 182 182 176
0.357278 -0.417175 1.242000 184 184 178
0.359639 -0.416167 1.239000 184 184 180
0.363742 -0.417175 1.242000 186 186 182
0.366974 -0.417175 1.242000 184 184 180
0.370206 -0.417175 1.242000 184 184 180
0.373437 -0.417175 1.242000 182 182 178
0.377276 -0.417847 1.244000 181 181 177
0.381431 -0.418854 1.247000 180 180 176
0.384676 -0.418854 1.247000 168 167 167
0.388543 -0.419526 1.249000 165 160 158
0.393361 -0.421205 1.254000 115 110 108
0.397573 -0.422213 1.257000 115 112 107
0.402438 -0.423893 1.262000 117 114 109
0.405722 -0.423893 1.262000 119 116 111
0.409979 -0.424900 1.265000 117 117 111
0.413270 -0.424900 1.265000 122 122 116
0.417221 -0.425572 1.267000 119 120 111
0.421513 -0.426580 1.270000 120 121 112
0.424818 -0.426580 1.270000 118 119 110
0.428123 -0.426580 1.270000 117 118 109
0.432447 -0.427587 1.273000 118 119 110
0.435759 -0.427587 1.273000 120 121 112
0.439072 -0.427587 1.273000 120 121 112
0.442384 -0.427587 1.273000 120 121 112
0.446397 -0.428259 1.275000 122 123 114
0.449715 -0.428259 1.275000 124 125 116
1.035468 -0.971728 2.893000 123 124 115
1.048043 -0.976431 2.907000 122 123 114
1.050524 -0.971728 2.893000 75 72 69
1.063172 -0.976431 2.907000 77 71 73
1.070736 -0.976431 2.907000 71 68 65
1.078301 -0.976431 2.907000 68 65 62
1.085865 -0.976431 2.907000 62 62 58
1.093430 -0.976431 2.907000 66 66 62
1.100994 -0.976431 2.907000 66 67 63
1.108559 -0.976431 2.907000 62 63 59
1.116123 -0.976431 2.907000 62 63 59
1.123687 -0.976431 2.907000 59 60 56
1.131252 -0.976431 2.907000 57 61 56
1.138816 -0.976431 2.907000 59 62 61
1.146381 -0.976431 2.907000 62 65 64
1.153945 -0.976431 2.907000 60 63 62
1.161510 -0.976431 2.907000 60 63 62
1.169074 -0.976431 2.907000 64 64 64
1.176639 -0.976431 2.907000 62 62 62
1.184203 -0.976431 2.907000 64 64 64
1.191768 -0.976431 2.907000 61 61 61
1.199332 -0.976431 2.907000 62 62 62
1.206897 -0.976431 2.907000 62 62 62
1.220310 -0.981133 2.921000 60 60 60
1.227911 -0.981133 2.921000 59 62 61
1.235512 -0.981133 2.921000 60 63 62
1.243112 -0.981133 2.921000 58 61 60
1.250713 -0.981133 2.921000 56 60 55
1.258314 -0.981133 2.921000 56 60 55
1.271983 -0.985836 2.935000 59 63 58
1.279620 -0.985836 2.935000 59 63 58
1.293397 -0.990538 2.949000 57 61 56
1.301071 -0.990538 2.949000 56 60 55
1.314958 -0.995241 2.963000 55 59 54
1.322668 -0.995241 2.963000 59 59 59
1.330378 -0.995241 2.963000 61 61 61
1.344411 -0.999943 2.977000 59 59 59
1.352158 -0.999943 2.977000 59 59 59
1.366756 -1.004981 2.992000 60 61 57
1.374542 -1.004981 2.992000 59 59 55
1.382327 -1.004981 2.992000 62 62 62
1.390113 -1.004981 2.992000 61 61 61
1.404907 -1.010020 3.007000 60 60 60
1.412732 -1.010020 3.007000 58 58 58
1.420556 -1.010020 3.007000 61 61 61
1.428381 -1.010020 3.007000 59 63 58
1.436206 -1.010020 3.007000 59 63 58
1.436827 -1.004981 2.992000 59 60 56
1.444613 -1.004981 2.992000 62 62 62
1.452398 -1.004981 2.992000 60 60 60
1.460184 -1.004981 2.992000 60 60 60
1.467970 -1.004981 2.992000 57 57 57
1.475755 -1.004981 2.992000 55 58 57
1.483541 -1.004981 2.992000 54 60 58
1.491326 -1.004981 2.992000 60 66 64
1.499112 -1.004981 2.992000 58 61 60
1.506898 -1.004981 2.992000 58 61 60
1.514683 -1.004981 2.992000 58 61 60
1.522469 -1.004981 2.992000 60 63 62
-1.405004 -0.888877 2.667000 64 68 63
-1.398064 -0.888877 2.667000 61 68 62
-1.391124 -0.888877 2.667000 56 63 57
-1.384184 -0.888877 2.667000 58 65 59
-1.377244 -0.888877 2.667000 63 67 62
-1.375956 -0.892543 2.678000 63 66 65
-1.368987 -0.892543 2.678000 67 70 69
-1.356424 -0.888877 2.667000 64 67 66
-1.349484 -0.888877 2.667000 63 66 65
-1.342544 -0.888877 2.667000 66 69 68
-1.335604 -0.888877 2.667000 63 70 64
-1.328664 -0.888877 2.667000 63 70 64
-1.321725 -0.888877 2.667000 59 62 61
-1.314785 -0.888877 2.667000 63 66 65
-1.307845 -0.888877 2.667000 64 67 66
-1.300905 -0.888877 2.667000 64 67 66
-1.299302 -0.892543 2.678000 69 72 71
-1.292333 -0.892543 2.678000 64 67 66
-1.285365 -0.892543 2.678000 64 67 66
-1.278396 -0.892543 2.678000 63 67 62
-1.271428 -0.892543 2.678000 61 62 58
-1.264459 -0.892543 2.678000 58 62 57
-1.257490 -0.892543 2.678000 63 67 62
-1.250522 -0.892543 2.678000 65 69 64
-1.243553 -0.892543 2.678000 58 65 59
-1.236585 -0.892543 2.678000 58 65 59
-1.235126 -0.896543 2.690000 64 68 63
-1.228126 -0.896543 2.690000 60 64 59
-1.221126 -0.896543 2.690000 59 63 58
-1.214126 -0.896543 2.690000 62 66 61
-1.207127 -0.896543 2.690000 60 61 55
-1.200127 -0.896543 2.690000 69 70 64
-1.193127 -0.896543 2.690000 67 67 61
-1.186127 -0.896543 2.690000 68 68 62
-1.179127 -0.896543 2.690000 65 65 59
-1.172128 -0.896543 2.690000 61 62 56
-1.170326 -0.900542 2.702000 66 67 61
-1.163294 -0.900542 2.702000 63 67 60
-1.156263 -0.900542 2.702000 62 66 59
-1.149233 -0.900542 2.702000 62 66 61
-1.142201 -0.900542 2.702000 59 62 61
-1.135170 -0.900542 2.702000 67 66 66
-1.128139 -0.900542 2.702000 63 62 62
-1.121108 -0.900542 2.702000 60 59 59
-1.114077 -0.900542 2.702000 60 60 60
-1.107046 -0.900542 2.702000 64 64 64
-1.100015 -0.900542 2.702000 60 64 59
-1.092984 -0.900542 2.702000 61 68 62
-1.085953 -0.900542 2.702000 65 72 66
-1.078922 -0.900542 2.702000 66 70 65
-1.071891 -0.900542 2.702000 74 74 68
-1.060131 -0.896543 2.690000 69 69 63
-0.427104 -0.392279 1.177000 132 128 119
-0.424041 -0.392279 1.177000 133 129 120
-0.420978 -0.392279 1.177000 134 130 121
-0.417916 -0.392279 1.177000 135 128 120
-0.414853 -0.392279 1.177000 129 125 116
-0.412840 -0.393279 1.180000 126 122 113
-0.409769 -0.393279 1.180000 122 118 109
-0.407388 -0.393946 1.182000 120 116 107
-0.405680 -0.395279 1.186000 121 117 110
-0.404292 -0.396945 1.191000 137 129 128
-0.401866 -0.397612 1.193000 168 160 159
-0.399764 -0.398612 1.196000 191 190 190
-0.397979 -0.399945 1.200000 195 194 194
-0.396502 -0.401611 1.205000 199 195 196
-0.394998 -0.403278 1.210000 203 199 200
-0.393469 -0.404944 1.215000 204 200 201
-0.390307 -0.404944 1.215000 207 203 204
-0.386190 -0.403944 1.212000 211 207 208
-0.383036 -0.403944 1.212000 211 207 208
-0.379882 -0.403944 1.212000 211 208 205
-0.376728 -0.403944 1.212000 211 208 205
-0.373574 -0.403944 1.212000 211 208 205
-0.370421 -0.403944 1.212000 211 208 205
-0.366661 -0.403278 1.210000 211 208 205
-0.344620 -0.403278 1.210000 207 203 204
-0.341472 -0.403278 1.210000 209 205 206
-0.337484 -0.402278 1.207000 207 203 204
-0.335175 -0.403278 1.210000 206 202 203
-0.332026 -0.403278 1.210000 206 202 203
-0.328062 -0.402278 1.207000 206 202 203
-0.324921 -0.402278 1.207000 206 202 203
-0.321780 -0.402278 1.207000 204 203 203
-0.318640 -0.402278 1.207000 203 202 202
-0.315499 -0.402278 1.207000 202 201 201
-0.311840 -0.401611 1.205000 202 201 201
-0.089731 -0.403944 1.212000 184 183 183
-0.086435 -0.403278 1.210000 183 182 182
-0.083424 -0.403944 1.212000 183 182 182
-0.080270 -0.403944 1.212000 183 182 182
-0.076989 -0.403278 1.210000 183 182 182
-0.073840 -0.403278 1.210000 184 183 183
-0.070692 -0.403278 1.210000 183 182 182
-0.067376 -0.402278 1.207000 183 182 182
-0.064235 -0.402278 1.207000 183 182 182
-0.061246 -0.403278 1.210000 183 182 182
-0.058097 -0.403278 1.210000 182 181 181
-0.055040 -0.403944 1.212000 182 181 181
-0.051800 -0.403278 1.210000 183 182 182
-0.048651 -0.403278 1.210000 182 181 181
-0.045578 -0.403944 1.212000 182 181 181
-0.042529 -0.404944 1.215000 182 181 181
-0.039368 -0.404944 1.215000 181 180 180
-0.036266 -0.405611 1.217000 182 181 181
-0.033099 -0.405611 1.217000 181 180 180
-0.029981 -0.406277 1.219000 181 180 180
-0.026809 -0.406277 1.219000 180 179 179
-0.023695 -0.407277 1.222000 181 180 180
-0.020515 -0.407277 1.222000 180 179 179
-0.017364 -0.407944 1.224000 181 180 180
-0.014179 -0.407944 1.224000 180 179 179
-0.010994 -0.407944 1.224000 179 178 178
-0.007796 -0.407277 1.222000 179 178 180
-0.004605 -0.406277 1.219000 179 178 180
-0.001433 -0.406277 1.219000 179 178 180
0.001736 -0.405611 1.217000 180 179 181
0.004903 -0.405611 1.217000 180 179 181
0.008057 -0.404944 1.215000 177 176 178
0.011218 -0.404944 1.215000 177 176 178
0.014344 -0.403944 1.212000 177 176 178
0.017498 -0.403944 1.212000 179 178 180
0.020652 -0.403944 1.212000 179 178 180
0.023806 -0.403944 1.212000 179 178 180
0.026960 -0.403944 1.212000 177 176 178
0.030113 -0.403944 1.212000 179 178 180
0.033267 -0.403944 1.212000 176 175 177
0.036421 -0.403944 1.212000 175 174 176
0.039575 -0.403944 1.212000 176 175 177
0.042834 -0.404944 1.215000 177 176 178
0.045996 -0.404944 1.215000 177 176 178
0.049239 -0.405611 1.217000 177 176 178
0.052405 -0.405611 1.217000 176 175 177
0.055663 -0.406277 1.219000 179 175 178
0.058836 -0.406277 1.219000 176 175 177
0.062008 -0.406277 1.219000 175 174 176
0.065340 -0.407277 1.222000 177 176 178
0.068520 -0.407277 1.222000 177 176 178
0.071817 -0.407944 1.224000 176 175 177
0.075002 -0.407944 1.224000 179 175 178
0.078187 -0.407944 1.224000 178 174 177
0.081372 -0.407944 1.224000 178 174 177
0.084557 -0.407944 1.224000 178 174 177
0.087957 -0.408944 1.227000 179 175 178
0.091150 -0.408944 1.227000 179 175 178
0.094343 -0.408944 1.227000 178 174 177
0.097297 -0.407944 1.224000 178 174 177
0.100482 -0.407944 1.224000 179 175 178
0.103667 -0.407944 1.224000 178 174 177
0.106852 -0.407944 1.224000 178 174 177
0.110037 -0.407944 1.224000 178 174 177
0.113222 -0.407944 1.224000 178 174 177
0.116407 -0.407944 1.224000 178 174 177
0.119593 -0.407944 1.224000 178 174 177
0.122577 -0.407277 1.222000 178 174 177
0.125757 -0.407277 1.222000 178 174 177
0.128937 -0.407277 1.222000 178 174 177
0.132116 -0.407277 1.222000 179 175 178
0.134964 -0.406277 1.219000 178 174 177
0.138476 -0.407277 1.222000 179 175 178
0.141656 -0.407277 1.222000 178 174 177
0.144836 -0.407277 1.222000 178 174 177
0.148016 -0.407277 1.222000 178 174 177
0.151443 -0.407944 1.224000 177 173 176
0.154628 -0.407944 1.224000 177 173 176
0.157813 -0.407944 1.224000 177 173 176
0.161393 -0.408944 1.227000 178 174 177
0.164585 -0.408944 1.227000 178 174 177
0.168052 -0.409610 1.229000 178 174 177
0.171250 -0.409610 1.229000 179 175 178
